ply
format ascii 1.0
comment VCGLIB generated
element vertex 373
property float x
property float y
property float z
element face 0
property list uchar int vertex_indices
end_header
225.252 -364.109 0.281942
225.234 -367.609 0.281942
223.025 -385.143 0.281942
223.051 -388.643 0.281942
223.078 -392.143 0.281942
223.104 -395.643 0.281942
262.914 -384.844 0.281942
262.94 -388.344 0.281942
262.966 -391.843 0.281942
262.992 -395.343 0.281942
181.217 -367.956 0.281942
181.243 -371.456 0.281942
181.269 -374.956 0.281942
225.216 -371.109 0.281942
225.198 -374.609 0.281942
385.682 -187.667 0.281942
389.182 -187.63 0.281942
392.682 -187.594 0.281942
386.099 -228.161 0.281942
389.598 -228.124 0.281942
393.098 -228.088 0.281942
382.599 -228.197 0.281942
381.332 -115.404 0.281942
384.731 -102.085 0.281942
388.231 -102.058 0.281942
391.731 -102.032 0.281942
381.482 -134.798 0.281942
384.982 -134.771 0.281942
388.482 -134.745 0.281942
391.981 -134.718 0.281942
384.639 -90.0726 0.281942
388.139 -90.0458 0.281942
391.639 -90.019 0.281942
401.835 -50.2775 0.281942
405.334 -50.2507 0.281942
408.834 -50.2239 0.281942
412.334 -50.197 0.281942
401.697 -32.3591 0.281942
405.197 -32.3323 0.281942
408.697 -32.3054 0.281942
412.197 -32.2786 0.281942
402.785 -149.542 0.281942
406.284 -149.506 0.281942
409.784 -149.469 0.281942
413.284 -149.432 0.281942
402.525 -124.738 0.281942
406.025 -124.701 0.281942
409.525 -124.665 0.281942
413.025 -124.628 0.281942
402.242 -97.558 0.281942
405.741 -97.5214 0.281942
409.241 -97.4849 0.281942
412.741 -97.4483 0.281942
86.7195 16.935 11.1923
86.7337 13.435 11.1923
86.7479 9.93504 11.1923
86.7621 6.43507 11.1923
-85.3326 16.3326 9.93449
-85.3179 12.8326 9.93449
-85.3132 9.33265 9.93449
-85.3085 5.83265 9.93449
384.874 -120.772 0.281942
388.374 -120.745 0.281942
391.874 -120.718 0.281942
385.899 -208.862 0.281942
389.399 -208.825 0.281942
392.899 -208.789 0.281942
382.399 -208.898 0.281942
181.995 -385.452 0.281942
182.026 -388.952 0.281942
182.056 -392.451 0.281942
182.087 -395.951 0.281942
11.3216 -157.188 0.281942
7.82167 -157.174 0.281942
4.3217 -157.16 0.281942
-6.29937 -187.989 0.281942
-9.79935 -187.975 0.281942
-13.2993 -187.961 0.281942
-16.7993 -187.947 0.281942
-6.39592 -212.588 0.281942
-9.89589 -212.575 0.281942
-13.3959 -212.561 0.281942
-16.8959 -212.547 0.281942
11.4252 -130.788 0.281942
7.92528 -130.774 0.281942
4.4253 -130.761 0.281942
11.5198 -106.688 0.281942
8.01986 -106.674 0.281942
4.51989 -106.661 0.281942
-16.4051 -87.5188 0.281942
-12.9052 -87.5325 0.281942
-9.40518 -87.5463 0.281942
-5.90521 -87.56 0.281942
-16.5303 -119.419 0.281942
-13.0303 -119.432 0.281942
-9.53036 -119.446 0.281942
-6.03039 -119.46 0.281942
-16.6351 -146.118 0.281942
-13.1351 -146.132 0.281942
-9.63513 -146.146 0.281942
-6.13516 -146.16 0.281942
4.68061 -65.7068 0.281942
8.18059 -65.7205 0.281942
11.6806 -65.7343 0.281942
4.77873 -40.707 0.281942
8.2787 -40.7207 0.281942
11.7787 -40.7345 0.281942
5.40151 96.37 0.281942
8.90147 96.3524 0.281942
12.4014 96.3347 0.281942
15.9014 96.317 0.281942
5.56551 128.87 0.281942
9.06546 128.852 0.281942
12.5654 128.834 0.281942
16.0654 128.817 0.281942
5.6856 152.669 0.281942
9.18556 152.652 0.281942
12.6855 152.634 0.281942
16.1855 152.616 0.281942
5.84707 184.669 0.281942
9.34703 184.651 0.281942
12.847 184.634 0.281942
16.3469 184.616 0.281942
5.98836 212.669 0.281942
9.48832 212.651 0.281942
12.9883 212.633 0.281942
16.4882 212.616 0.281942
-15.5721 101.65 0.281942
-12.0721 101.632 0.281942
-8.57218 101.614 0.281942
-5.07223 101.597 0.281942
-15.8375 49.0504 0.281942
-12.3375 49.0328 0.281942
-8.83759 49.0151 0.281942
-5.33763 48.9974 0.281942
-15.6876 78.7501 0.281942
-12.1877 78.7324 0.281942
-8.68773 78.7147 0.281942
-5.18777 78.6971 0.281942
-493.349 196.752 0.281942
-489.849 196.774 0.281942
-486.35 196.796 0.281942
-482.85 196.818 0.281942
-493.529 225.452 0.281942
-490.029 225.474 0.281942
-486.529 225.496 0.281942
-483.029 225.517 0.281942
-515.295 221.757 0.281942
-511.795 221.749 0.281942
-508.295 221.74 0.281942
-504.795 221.732 0.281942
-515.349 198.457 0.281942
-511.849 198.449 0.281942
-508.349 198.44 0.281942
-504.849 198.432 0.281942
-514.113 158.821 0.281942
-510.613 158.843 0.281942
-507.113 158.865 0.281942
-503.613 158.887 0.281942
37.2494 -170.445 0.281942
37.8015 -173.942 0.281942
105.291 -170.061 0.281942
83.1915 -170.189 0.281942
104.937 -173.559 0.281942
84.0373 -173.678 0.281942
149.736 -173.304 0.281942
227.074 -172.864 0.556324
284.782 -169.036 0.539108
284.547 -172.537 0.539108
314.88 -213.088 0.281942
311.348 -209.547 0.281942
203.358 -224.887 0.281942
202.769 -199.194 0.281942
201.201 -283.468 0.281942
199.855 -224.794 0.281942
199.277 -199.601 0.281942
285.911 -121.876 0.281942
285.981 -118.374 0.281942
314.288 -146.643 0.281942
310.789 -146.828 0.281942
233.211 -307.655 0.281942
233.357 -311.153 0.281942
255.268 -280.206 0.281942
229.872 -246.035 0.281942
-515.25 240.957 0.281942
-511.75 240.949 0.281942
-508.25 240.94 0.281942
-504.75 240.932 0.281942
-493.23 177.653 0.281942
-489.73 177.675 0.281942
-486.23 177.696 0.281942
-482.73 177.718 0.281942
334.011 -117.6 0.281942
348 -142.854 0.281942
351.5 -142.806 0.281942
334.068 -121.1 0.281942
248.583 -385.23 0.281942
248.565 -388.73 0.281942
248.547 -392.23 0.281942
248.529 -395.73 0.281942
-514.23 177.521 0.281942
-510.73 177.543 0.281942
-507.23 177.565 0.281942
-503.73 177.587 0.281942
160.496 -385.64 0.281942
160.527 -389.14 0.281942
160.557 -392.64 0.281942
160.588 -396.139 0.281942
248.691 -364.23 0.281942
248.673 -367.73 0.281942
248.655 -371.23 0.281942
248.637 -374.73 0.281942
-494.25 240.908 0.281942
-490.75 240.9 0.281942
-487.25 240.891 0.281942
-483.75 240.883 0.281942
160.311 -364.641 0.281942
160.342 -368.14 0.281942
160.372 -371.64 0.281942
160.403 -375.14 0.281942
6.56074 312.026 0.281942
9.04399 314.492 0.281942
-45.632 340.291 0.281942
-48.388 338.134 0.281942
-51.144 335.976 0.281942
-53.9 333.819 0.281942
-1.41512 306.845 0.281942
-4.62252 305.445 0.281942
-7.82992 304.044 0.281942
-11.0373 302.643 0.281942
194.7 -311.171 0.281942
211.312 -307.88 0.281942
205.489 -317.737 0.281942
201.555 -298.864 0.281942
348.286 -164.052 0.281942
341.31 -172.214 0.281942
356.212 -168.629 0.281942
351.957 -176.77 0.281942
200.882 -385.309 0.281942
200.908 -388.809 0.281942
200.935 -392.309 0.281942
200.961 -395.809 0.281942
208.996 -367.748 0.281942
209.022 -371.248 0.281942
209.048 -374.748 0.281942
202.941 -359.274 0.281942
208.969 -364.248 0.281942
250.856 -310.973 0.281942
263.305 -307.345 0.281942
255.337 -302.606 0.281942
315.265 -256.264 0.281942
311.608 -238.712 0.281942
304.386 -250.048 0.281942
322.609 -246.673 0.281942
315.061 -233.387 0.281942
311.459 -221.947 0.281942
314.588 -180.298 0.281942
310.918 -161.228 0.281942
303.247 -172.431 0.59307
321.705 -168.825 0.281942
314.12 -127.844 0.281942
310.487 -112.973 0.281942
304.109 -121.583 0.281942
410.947 -14.671 0.281942
321.527 -117.802 0.281942
4.61154 -83.3067 0.281942
8.11152 -83.3204 0.281942
11.6115 -83.3341 0.281942
15.1115 -83.3479 0.281942
-16.2544 -49.1191 0.281942
-12.7545 -49.1328 0.281942
-9.2545 -49.1466 0.281942
-5.75453 -49.1603 0.281942
24.6896 -80.398 0.281942
258.46 -180.457 0.281942
254.899 -160.678 0.281942
246.874 -172.751 0.281942
266.282 -169.141 0.539108
403.041 -174.057 0.281942
406.54 -174.02 0.281942
410.04 -173.983 0.281942
413.54 -173.947 0.281942
385.457 -166.171 0.281942
388.957 -166.135 0.281942
392.457 -166.098 0.281942
381.557 -166.208 0.281942
376.741 -172.012 0.281942
329.158 -172.283 0.281942
335.21 -168.749 0.281942
330.992 -175.855 0.281942
5.25871 68.0704 0.281942
8.75867 68.0527 0.281942
12.2586 68.0351 0.281942
15.7586 68.0174 0.281942
-15.4475 126.349 0.281942
-11.9475 126.332 0.281942
-8.44755 126.314 0.281942
-4.9476 126.296 0.281942
-24.9951 123.36 0.281942
68.3169 16.8603 11.1923
68.3311 13.3603 11.1923
68.3453 9.86031 11.1923
68.3595 6.36034 11.1923
110.968 38.2071 11.1923
111.027 34.7076 11.1923
111.087 31.2081 11.1923
111.147 27.7086 11.1923
107.804 47.713 11.1923
131.182 -180.547 0.281942
133.191 -169.898 0.281942
125.037 -173.445 0.281942
380.931 -62.8958 0.281942
375.609 -68.6854 0.281942
401.994 -71.0451 0.281942
405.494 -71.0183 0.281942
408.994 -70.9915 0.281942
412.494 -70.9646 0.281942
384.431 -62.8692 0.281942
387.931 -62.8423 0.281942
391.431 -62.8155 0.281942
-25.1122 -245.745 0.281942
-28.0157 -247.7 0.281942
20.183 -288.97 0.281942
23.3192 -287.416 0.281942
26.4554 -285.863 0.281942
29.5916 -284.309 0.281942
-15.5383 -242.217 0.281942
-12.0659 -241.779 0.281942
-8.59344 -241.34 0.281942
-5.12101 -240.902 0.281942
-105.519 16.3055 9.77131
-105.504 12.8055 9.77131
-105.499 9.30554 9.77131
-105.495 5.80554 9.77131
-69.6508 37.3536 10.2156
-69.6461 33.8536 10.2156
-69.6415 30.3536 10.2156
-69.6368 26.8536 10.2156
-99.5703 -3.6702 9.77131
204.069 -255.879 0.281942
211.273 -245.907 0.281942
200.176 -238.79 0.281942
194.094 -248.69 0.281942
62.139 -180.003 0.281942
54.1013 -173.849 0.281942
66.7489 -170.277 0.281942
-390.383 5.73083 0.281942
-390.315 16.2306 0.281942
-390.338 12.7307 0.281942
-390.361 9.23076 0.281942
-365.043 37.0685 0.281942
-365.066 33.5686 0.281942
-365.088 30.0687 0.281942
-365.111 26.5688 0.281942
-6.22166 -168.189 0.281942
-9.72164 -168.175 0.281942
-13.2216 -168.161 0.281942
-16.7216 -168.147 0.281942
11.2463 -176.388 0.281942
7.74632 -176.374 0.281942
4.24635 -176.36 0.281942
14.7463 -176.402 0.281942
20.0406 -170.542 0.281942
262.784 -118.749 0.281942
258.302 -129.097 0.281942
249.524 -122.463 0.281942
407.508 -15.3205 0.281942
400.63 -16.6201 0.281942
404.069 -15.9706 0.281942
369.874 -0.989987 0.281942
372.388 1.44561 0.281942
374.901 3.88121 0.281942
377.415 6.31681 0.281942
